# .PCD v0.7 - Point Cloud Data file format
VERSION 0.7
FIELDS x y z
SIZE 4 4 4
TYPE F F F
COUNT 1 1 1
WIDTH 232
HEIGHT 1
VIEWPOINT 0 0 0 1 0 0 0
POINTS 232
DATA ascii
0.012 0.024 0.00875
0.02 1.09 0
2.7 2.6 -0.01
2.8 3.62 -0.02
0 2.42 0.14
30.024 75 5.0075
30.008 75.024 5.60125
30.032 75.028 6.21125
30.008 75 6.8025
30.012 75.028 7.40625
30.036 75.008 8.0025
27.036 17.028 0.01125
-1.492 46.598 0.005
18.332 35.3 0.00875
12.96 22.45 0.00125
10.09 22.756 0.0025
10.122 23.752 0.005
1.508 43.59 0.00625
8.572 27.924 0.0025
27.036 18.008 0.00625
7.665998 29.9 0.00625
13.928 48.12 0.00375
18.482 35.93 0.0075
14.016 34.028 0.00625
22.092 29.94 0.01125
20.282 37.9 0.00875
27.02 18.016 0.00625
9.500001 20.56 0
19.328 37.308 0.0025
8.645999 28.908 0.00625
20.432 37.57 0.00625
0.9839997 59.004 0
20.824 45.3 0
21.868 34.66 0
18.3 52.3 0.0075
-2.384186E-07 57 0.01
22.8 46.288 0.01125
2.032 14.474 0.00625
21.792 50.308 0.00625
0.5039997 44.566 0.01125
2.436 55.004 0.00875
22.1 31.908 0.0025
0.9999998 58.008 0.005
0.032 14.486 0.005
19.966 37.024 0.0025
1.3 34 0.00125
8.102 16.752 0.01
8.126 22.756 0.0075
9.535999 29.94 0.01125
13.808 55.308 0.01125
0.5599976 15.49 0.01125
2.3 52.312 0.01
2.02 12.494 0.005
11.316 45.208 0.00875
9.110002 22.752 0
26.02 11.036 0.00375
21.812 47.316 0.00875
6.028 13.494 0.00125
5.312 17.178 0.005
2.3 17.17 0.0075
5.74 14.31 0
18.096 28.92 0.00875
18.068 29.54 0.00875
19.292 29.536 0.0075
19.88 29.524 0.00625
20.504 29.536 0.005
18.1 30.124 0.01125
18.684 30.132 0
19.896 30.144 0.01
20.468 30.144 0.005
19.272 30.716 0.0025
19.896 30.744 0.0075
20.484 30.744 0.0075
18.08 31.34 0.0075
14.144 28.932 0.00125
14.736 28.912 0.00125
3.004 28.916 0.00625
17.586 26.218 0.00625
14.14 29.512 0.00875
14.74 29.536 0.01
13.548 30.116 0.0075
14.152 30.108 0.0025
14.756 30.74 0.01
3 30.724 0.01125
15.964 30.736 0.01
13.536 31.344 0.00125
14.14 31.32 0.00625
14.768 31.328 0.00875
3 31.344 0
15.936 31.316 0
18.584 11.424 0.00125
8.098001 18.52 0.0075
7.390001 24.12 0.0025
8.56 14.326 0.00125
18.6 12 0.00125
8.39 15.02 0.005
7.482001 19.752 0.0025
8.110002 19.748 0.01
8.394002 15.608 0
7.514001 20.32 0.00125
8.110002 20.336 0
15.4 1.3 0.005
8.398002 16.216 0.00875
8.118001 20.924 0
15.376 1.896 0.00375
12.116 43.916 0.00875
12.712 43.892 0.00625
13.316 43.884 0.00375
11.48 46.2 0.005
12.092 44.5 0.00125
12.68 44.504 0.0025
13.316 44.488 0.01125
11.332 47.1 0
2.6 44.184 0.0025
11.5 44 0.00875
12.092 45.1 0.0075
13.28 45.1 0.01125
2.6 44.8 0.00375
11.484 44.604 0.00875
12.708 45.684 0.0025
13.28 45.684 0
12.688 46.288 0.0025
3.516 58.012 0.005
1.12 46.512 0.00125
1.7 46.5 0.005
4.616 58.608 0.00875
3.516 58.608 0.005
1.696001 47.112 0.00875
4.62 59.216 0.005
3.5 59.224 0.00625
4.6 59.836 0.00875
3.524 59.812 0.00375
1.108001 48.312 0.0075
4.612 60.412 0.0075
1.1 48.912 0.0025
1.724 48.904 0.00625
3.42 56.036 0.005
2.808 56.632 0.00625
3.384 56.612 0.00875
1.616 57.2 0.00125
3.412 57.236 0.01
2.188 58.408 0.00125
21.592 48.904 0.00875
19.796 49.492 0.01125
20.392 49.48 0.0075
21.012 49.496 0.00625
21.616 49.48 0.00125
19.808 50.1 0.00375
20.388 50.088 0.0025
20.996 50.096 0.00125
21.604 50.096 0.005
20.412 50.7 0.00625
21.624 50.712 0.00125
18.296 26.328 0.005
0.789999 16.14 0
3.195999 28.508 0.01125
8.614001 22.36 0.0075
18.126 26.778 0.00875
1.13 14.93 0.00125
19.468 28.516 0.00625
3.204 29.136 0.005
16.14 29.116 0.00375
18.268 29.128 0.0025
19.484 29.112 0
0.6000001 42.3 0.0075
1.168001 42.312 0.0075
3.223999 30.34 0.0025
16.168 30.308 0.01125
18.288 30.324 0.0025
18.9 30.324 0.005
22.012 15 0.00125
23.828 15.012 0.00375
24.408 15.028 0.01
22.02 15.636 0.01
23.828 15.624 0.01125
22.612 16.216 0
23.204 16.224 0.01
23.812 16.228 0.00625
22.028 17.436 0.0075
22.612 17.424 0.0025
24.412 17.436 0.0025
15.938 5.05 0.00125
16.53 5.082 0.00875
17.126 5.086 0.0075
17.71 5.082 0.01125
18.33 5.05 0.0025
15.922 5.654 0.0075
16.514 5.682 0.00625
17.73 6.282001 0
16.534 6.274 0.0025
17.142 6.282001 0.01125
17.73 6.282001 0
18.334 6.262 0
5.5 13.05 0.01125
15.914 6.858 0.01125
16.518 6.886001 0
17.138 6.858 0.00375
17.722 6.87 0.00125
18.31 6.874001 0.0075
15.946 7.466001 0.0025
16.526 7.458 0.00375
12.168 48.9 0.01
12.788 48.904 0.00375
13.384 48.9 0.00875
15.2 51.08 0.00125
12.796 49.516 0.01
13.376 49.488 0.00375
13.996 49.492 0.005
12.188 50.116 0.00375
12.776 50.096 0.01125
14.592 50.108 0.00375
15.2 52.252 0.01
12.192 52.876 0.0075
12.772 52.864 0.005
13.4 52.864 0.00125
13.968 52.864 0
0.9740009 51.994 0.0025
1.590001 51.99 0.00875
11.164 24.924 0.01
11.748 24.924 0.01
12.936 24.944 0.00875
11.736 25.544 0.005
12.368 25.532 0.0075
12.94 25.508 0.01
12.36 26.12 0.00125
12.944 26.12 0.0025
11.136 26.736 0.01125
11.764 26.724 0
11.156 27.32 0.00875
11.756 27.332 0.00125
11.756 27.332 0.00125
11.756 27.332 0.00125
